8.923000335693359375e+00 6.252799987792968750e+01 6.445300292968750000e+01
8.553000450134277344e+00 6.372399902343750000e+01 6.357199859619140625e+01
7.769999980926513672e+00 6.212300109863281250e+01 6.538200378417968750e+01
7.965000152587890625e+00 6.078699874877929688e+01 6.605400085449218750e+01
7.393000125885009766e+00 5.963499832153320312e+01 6.552100372314453125e+01
7.559999942779541016e+00 5.839300155639648438e+01 6.614299774169921875e+01
8.810999870300292969e+00 6.476999664306640625e+01 6.138000106811523438e+01
7.439000129699707031e+00 6.483699798583984375e+01 6.072399902343750000e+01
9.894000053405761719e+00 6.473899841308593750e+01 6.030099868774414062e+01
9.835000038146972656e+00 6.352199935913085938e+01 5.942100143432617188e+01
9.272999763488769531e+00 6.333800125122070312e+01 5.820500183105468750e+01
1.015799999237060547e+01 6.142900085449218750e+01 5.883100128173828125e+01
5.352000236511230469e+00 6.374599838256835938e+01 6.018399810791015625e+01
4.368999958038330078e+00 6.303499984741210938e+01 6.109799957275390625e+01
5.367000102996826172e+00 6.306600189208984375e+01 5.881000137329101562e+01
4.074999809265136719e+00 6.327799987792968750e+01 5.802299880981445312e+01
4.127999782562255859e+00 6.269400024414062500e+01 5.661600112915039062e+01
2.713000059127807617e+00 6.277799987792968750e+01 5.458000183105468750e+01
2.375999927520751953e+00 6.324200057983398438e+01 6.250099945068359375e+01
9.969999790191650391e-01 6.363999938964843750e+01 6.198099899291992188e+01
2.559999942779541016e+00 6.376200103759765625e+01 6.394599914550781250e+01
3.907999992370605469e+00 6.328499984741210938e+01 6.450399780273437500e+01
1.422000050544738770e+00 6.327799987792968750e+01 6.483599853515625000e+01
-1.128000020980834961e+00 6.287300109863281250e+01 6.104600143432617188e+01
-2.158999919891357422e+00 6.225199890136718750e+01 6.198099899291992188e+01
-1.304000020027160645e+00 6.227399826049804688e+01 5.961600112915039062e+01
-2.890000045299530029e-01 6.289599990844726562e+01 5.864799880981445312e+01
-2.730999946594238281e+00 6.252799987792968750e+01 5.910699844360351562e+01
-3.210000097751617432e-01 6.231200027465820312e+01 5.724900054931640625e+01
-4.021999835968017578e+00 6.265000152587890625e+01 6.356000137329101562e+01
-4.942999839782714844e+00 6.161500167846679688e+01 6.292200088500976562e+01
-2.941999912261962891e+00 6.457099914550781250e+01 6.257099914550781250e+01
-6.111000061035156250e+00 5.949399948120117188e+01 6.321400070190429688e+01
-5.447000026702880859e+00 5.859299850463867188e+01 6.218700027465820312e+01
-3.407999992370605469e+00 5.802700042724609375e+01 6.095299911499023438e+01
-2.127000093460083008e+00 5.742399978637695312e+01 6.154800033569335938e+01
-3.092000007629394531e+00 5.890299987792968750e+01 5.972700119018554688e+01
-2.446000099182128906e+00 5.816699981689453125e+01 5.857199859619140625e+01
-1.950999975204467773e+00 5.887900161743164062e+01 5.748799896240234375e+01
-2.344000101089477539e+00 5.678300094604492188e+01 5.855400085449218750e+01
-1.368999958038330078e+00 5.822499847412109375e+01 5.640499877929687500e+01
-1.761999964714050293e+00 5.611899948120117188e+01 5.747299957275390625e+01
-1.276000022888183594e+00 5.684099960327148438e+01 5.639799880981445312e+01
1.889999955892562866e-01 5.771300125122070312e+01 6.220500183105468750e+01
1.217000007629394531e+00 5.877600097656250000e+01 6.257099914550781250e+01
8.209999799728393555e-01 5.672700119018554688e+01 6.120800018310546875e+01
1.120000004768371582e+00 5.728900146484375000e+01 5.981000137329101562e+01
2.046999931335449219e+00 5.979999923706054688e+01 5.899000167846679688e+01
3.367000102996826172e+00 5.917900085449218750e+01 6.369900131225585938e+01
4.599999904632568359e+00 5.859500122070312500e+01 6.301900100708007812e+01
3.566999912261962891e+00 5.913000106811523438e+01 6.521299743652343750e+01
6.429999828338623047e+00 5.894100189208984375e+01 6.143000030517578125e+01
7.725999832153320312e+00 5.960100173950195312e+01 6.191799926757812500e+01
6.242000102996826172e+00 5.920000076293945312e+01 5.992599868774414062e+01
7.392000198364257812e+00 5.872600173950195312e+01 5.903499984741210938e+01
7.178999900817871094e+00 5.907300186157226562e+01 5.757400131225585938e+01
1.008300018310546875e+01 5.932400131225585938e+01 6.244100189208984375e+01
1.121899986267089844e+01 5.842900085449218750e+01 6.196500015258789062e+01
1.349899959564208984e+01 5.767300033569335938e+01 6.225400161743164062e+01
1.459300041198730469e+01 5.825000000000000000e+01 6.136899948120117188e+01
1.482199954986572266e+01 6.113000106811523438e+01 5.908599853515625000e+01
1.259599971771240234e+01 6.502700042724609375e+01 5.688199996948242188e+01
1.208300018310546875e+01 6.273400115966796875e+01 5.630699920654296875e+01
1.269600009918212891e+01 6.229000091552734375e+01 5.499300003051757812e+01
1.451799964904785156e+01 6.248400115966796875e+01 5.339300155639648438e+01
1.569400024414062500e+01 6.152700042724609375e+01 5.360599899291992188e+01
1.503400039672851562e+01 6.374200057983398438e+01 5.264500045776367188e+01
1.392700004577636719e+01 6.478600311279296875e+01 5.253699874877929688e+01
1.705599975585937500e+01 5.931100082397460938e+01 5.595500183105468750e+01
1.693600082397460938e+01 5.311999893188476562e+01 5.227199935913085938e+01
1.669099998474121094e+01 5.461700057983398438e+01 5.212900161743164062e+01
9.458999633789062500e+00 4.595199966430664062e+01 5.106800079345703125e+01
5.381999969482421875e+00 4.500099945068359375e+01 5.252099990844726562e+01
-1.820000052452087402e+00 4.722100067138671875e+01 5.995999908447265625e+01
-3.252000093460083008e+00 4.709299850463867188e+01 6.048199844360351562e+01
-1.689000010490417480e+00 4.843899917602539062e+01 5.904000091552734375e+01
-3.549999892711639404e-01 4.854800033569335938e+01 5.836100006103515625e+01
7.379999756813049316e-01 4.929199981689453125e+01 5.865900039672851562e+01
1.192000031471252441e+00 4.814400100708007812e+01 5.684400177001953125e+01
1.190000057220458984e+00 4.893099975585937500e+01 6.497200012207031250e+01
2.446000099182128906e+00 4.973400115966796875e+01 6.457299804687500000e+01
3.869999945163726807e-01 4.855599975585937500e+01 6.369400024414062500e+01
-7.160000205039978027e-01 4.754000091552734375e+01 6.402600097656250000e+01
1.309000015258789062e+00 4.797900009155273438e+01 6.262200164794921875e+01
4.893000125885009766e+00 4.964699935913085938e+01 6.426300048828125000e+01
5.256999969482421875e+00 4.909099960327148438e+01 6.288000106811523438e+01
5.940999984741210938e+00 4.924599838256835938e+01 6.530100250244140625e+01
7.348000049591064453e+00 4.983000183105468750e+01 6.520400238037109375e+01
7.317999839782714844e+00 5.136000061035156250e+01 6.522799682617187500e+01
5.709000110626220703e+00 4.960300064086914062e+01 6.052700042724609375e+01
6.802000045776367188e+00 5.044699859619140625e+01 5.984199905395507812e+01
4.389999866485595703e+00 4.966799926757812500e+01 5.973400115966796875e+01
8.454999923706054688e+00 5.060900115966796875e+01 5.806600189208984375e+01
7.992000102996826172e+00 5.161100006103515625e+01 5.701699829101562500e+01
9.413000106811523438e+00 4.961000061035156250e+01 5.740499877929687500e+01
1.025399971008300781e+01 4.877399826049804688e+01 5.836999893188476562e+01
1.252200031280517578e+01 5.036299896240234375e+01 5.830599975585937500e+01
8.227999687194824219e+00 5.385900115966796875e+01 5.611399841308593750e+01
9.163999557495117188e+00 5.358100128173828125e+01 5.492699813842773438e+01
8.508000373840332031e+00 5.523400115966796875e+01 5.669800186157226562e+01
9.633000373840332031e+00 5.378699874877929688e+01 5.256600189208984375e+01
9.324999809265136719e+00 5.470199966430664062e+01 5.137799835205078125e+01
9.609000205993652344e+00 5.229800033569335938e+01 5.214599990844726562e+01
8.227000236511230469e+00 5.181200027465820312e+01 5.171300125122070312e+01
9.916999816894531250e+00 5.530300140380859375e+01 4.908200073242187500e+01
9.631999969482421875e+00 5.431900024414062500e+01 4.795299911499023438e+01
1.117899990081787109e+01 5.610200119018554688e+01 4.879199981689453125e+01
8.553999900817871094e+00 5.227399826049804688e+01 4.728099822998046875e+01
9.107999801635742188e+00 5.093199920654296875e+01 4.770899963378906250e+01
9.357000350952148438e+00 4.852299880981445312e+01 4.719400024414062500e+01
1.086499977111816406e+01 4.840399932861328125e+01 4.741999816894531250e+01
8.932000160217285156e+00 4.775699996948242188e+01 4.594400024414062500e+01
7.681000232696533203e+00 4.846200180053710938e+01 4.553799819946289062e+01
8.079999923706054688e+00 4.990399932861328125e+01 4.567900085449218750e+01
1.348999977111816406e+01 4.861999893188476562e+01 4.911000061035156250e+01
1.372700023651123047e+01 5.081499862670898438e+01 5.013199996948242188e+01
1.369999980926513672e+01 5.111199951171875000e+01 5.163100051879882812e+01
1.330200004577636719e+01 5.208700180053710938e+01 4.933300018310546875e+01
1.359200000762939453e+01 5.191899871826171875e+01 4.784799957275390625e+01
1.374199962615966797e+01 5.020800018310546875e+01 5.389400100708007812e+01
1.506599998474121094e+01 5.076499938964843750e+01 5.440399932861328125e+01
1.347599983215332031e+01 4.886399841308593750e+01 5.456900024414062500e+01
1.209700012207031250e+01 4.833700180053710938e+01 5.427999877929687500e+01
1.616699981689453125e+01 5.240399932861328125e+01 5.580199813842773438e+01
1.605599975585937500e+01 5.234799957275390625e+01 5.730799865722656250e+01
1.561100006103515625e+01 5.360499954223632812e+01 5.936500167846679688e+01
1.426399993896484375e+01 5.422299957275390625e+01 5.973300170898437500e+01
1.232800006866455078e+01 5.549599838256835938e+01 5.900699996948242188e+01
1.121500015258789062e+01 5.449499893188476562e+01 5.926200103759765625e+01
1.196500015258789062e+01 5.646200180053710938e+01 5.788000106811523438e+01
1.285200023651123047e+01 5.770199966430664062e+01 5.785900115966796875e+01
1.231900024414062500e+01 5.877899932861328125e+01 5.694400024414062500e+01
9.223999977111816406e+00 5.401200103759765625e+01 6.060100173950195312e+01
8.026000022888183594e+00 5.487500000000000000e+01 6.098699951171875000e+01
9.663999557495117188e+00 5.323600006103515625e+01 6.184600067138671875e+01
9.970000267028808594e+00 5.412599945068359375e+01 6.302199935913085938e+01
1.122099971771240234e+01 5.472200012207031250e+01 6.315200042724609375e+01
8.982000350952148438e+00 5.443399810791015625e+01 6.395500183105468750e+01
1.148499965667724609e+01 5.561800003051757812e+01 6.418299865722656250e+01
9.234999656677246094e+00 5.533100128173828125e+01 6.499299621582031250e+01
1.048999977111816406e+01 5.592599868774414062e+01 6.510600280761718750e+01
5.727000236511230469e+00 5.491400146484375000e+01 6.176699829101562500e+01
4.893000125885009766e+00 5.409500122070312500e+01 6.274300003051757812e+01
4.875999927520751953e+00 5.541500091552734375e+01 6.058100128173828125e+01
4.294000148773193359e+00 5.432899856567382812e+01 5.971400070190429688e+01
5.037000179290771484e+00 5.376800155639648438e+01 5.867800140380859375e+01
2.970000028610229492e+00 5.391999816894531250e+01 5.988399887084960938e+01
4.464000225067138672e+00 5.281999969482421875e+01 5.781499862670898438e+01
2.391000032424926758e+00 5.297399902343750000e+01 5.902700042724609375e+01
3.140000104904174805e+00 5.242499923706054688e+01 5.799200057983398438e+01
3.368999958038330078e+00 5.418199920654296875e+01 6.463400268554687500e+01
1.940000057220458984e+00 5.455199813842773438e+01 6.424500274658203125e+01
3.625999927520751953e+00 5.472100067138671875e+01 6.606099700927734375e+01
5.107999801635742188e+00 5.459999847412109375e+01 6.642700195312500000e+01
2.763999938964843750e+00 5.395700073242187500e+01 6.707099914550781250e+01
5.481999874114990234e+00 5.540299987792968750e+01 6.765299987792968750e+01
-2.450000047683715820e-01 5.376499938964843750e+01 6.355799865722656250e+01
-1.075000047683715820e+00 5.413600158691406250e+01 6.477200317382812500e+01
-8.389999866485595703e-01 5.249800109863281250e+01 6.294400024414062500e+01
-2.918999910354614258e+00 5.542900085449218750e+01 6.564299774169921875e+01
-4.320000171661376953e+00 5.493500137329101562e+01 6.526899719238281250e+01
-2.901999950408935547e+00 5.695299911499023438e+01 6.589700317382812500e+01
-1.564000010490417480e+00 5.737300109863281250e+01 6.650099945068359375e+01
-5.658999919891357422e+00 5.366699981689453125e+01 6.364300155639648438e+01
-5.368000030517578125e+00 5.252799987792968750e+01 6.266699981689453125e+01
-6.495999813079833984e+00 5.473799896240234375e+01 6.295600128173828125e+01
-6.263000011444091797e+00 5.067399978637695312e+01 6.136500167846679688e+01
-6.006999969482421875e+00 5.130599975585937500e+01 5.999200057983398438e+01
-4.543000221252441406e+00 5.142900085449218750e+01 5.803599929809570312e+01
-4.315000057220458984e+00 5.028300094604492188e+01 5.705099868774414062e+01
-3.263999938964843750e+00 5.230899810791015625e+01 5.813499832153320312e+01
-3.477999925613403320e+00 5.346099853515625000e+01 5.912599945068359375e+01
-5.309000015258789062e+00 4.840800094604492188e+01 5.585400009155273438e+01
-4.826000213623046875e+00 4.869599914550781250e+01 5.442699813842773438e+01
-4.518000125885009766e+00 5.030199813842773438e+01 5.261999893188476562e+01
-2.996999979019165039e+00 5.027199935913085938e+01 5.247999954223632812e+01
-5.063000202178955078e+00 5.167800140380859375e+01 5.219699859619140625e+01
-4.585000038146972656e+00 5.285100173950195312e+01 5.302899932861328125e+01
-3.515000104904174805e+00 5.366600036621093750e+01 5.276900100708007812e+01
-5.171999931335449219e+00 5.333499908447265625e+01 5.424300003051757812e+01
-4.401000022888183594e+00 5.444499969482421875e+01 5.466699981689453125e+01
-6.269999980926513672e+00 5.294300079345703125e+01 5.501800155639648438e+01
-4.697000026702880859e+00 5.515999984741210938e+01 5.583100128173828125e+01
-6.563000202178955078e+00 5.365800094604492188e+01 5.617699813842773438e+01
-5.777999877929687500e+00 5.475299835205078125e+01 5.656999969482421875e+01
-8.460000157356262207e-01 5.009199905395507812e+01 5.362799835205078125e+01
-3.659999966621398926e-01 4.864300155639648438e+01 5.368399810791015625e+01
-2.960000038146972656e-01 5.088899993896484375e+01 5.481800079345703125e+01
-6.230000257492065430e-01 5.239300155639648438e+01 5.486000061035156250e+01
-1.159999966621398926e-01 5.301499938964843750e+01 5.615399932861328125e+01
-2.800000086426734924e-02 5.311399841308593750e+01 5.364899826049804688e+01
-9.589999914169311523e-01 4.628400039672851562e+01 5.389199829101562500e+01
-3.199999928474426270e-01 4.586100006103515625e+01 5.257400131225585938e+01
-2.206000089645385742e+00 4.542900085449218750e+01 5.415299987792968750e+01
-2.717999935150146484e+00 4.554800033569335938e+01 5.557899856567382812e+01
2.391999959945678711e+00 4.578400039672851562e+01 5.085300064086914062e+01
3.226999998092651367e+00 4.809400177001953125e+01 5.095899963378906250e+01
4.280000209808349609e+00 4.851599884033203125e+01 5.199900054931640625e+01
2.349999904632568359e+00 4.929999923706054688e+01 5.060699844360351562e+01
1.314000010490417480e+00 4.903699874877929688e+01 4.953599929809570312e+01
4.769999980926513672e-01 5.027600097656250000e+01 4.928799819946289062e+01
-6.859999895095825195e-01 4.997600173950195312e+01 4.835499954223632812e+01
4.852000236511230469e+00 4.864699935913085938e+01 5.438100051879882812e+01
5.018000125885009766e+00 4.743999862670898438e+01 5.529499816894531250e+01
4.313000202178955078e+00 4.985200119018554688e+01 5.515299987792968750e+01
4.263000011444091797e+00 5.110300064086914062e+01 5.433300018310546875e+01
3.306999921798706055e+00 5.158900070190429688e+01 5.350500106811523438e+01
5.032000064849853516e+00 5.293799972534179688e+01 5.338999938964843750e+01
6.563000202178955078e+00 4.598199844360351562e+01 5.648799896240234375e+01
6.280000209808349609e+00 4.621799850463867188e+01 5.796599960327148438e+01
8.036000251770019531e+00 4.551200103759765625e+01 5.631800079345703125e+01
8.302000045776367188e+00 4.511500167846679688e+01 5.486600112915039062e+01
4.857999801635742188e+00 4.567200088500976562e+01 5.988600158691406250e+01
3.404000043869018555e+00 4.519100189208984375e+01 6.011500167846679688e+01
3.092000007629394531e+00 4.512099838256835938e+01 6.160699844360351562e+01
2.437000036239624023e+00 4.612400054931640625e+01 5.940999984741210938e+01
8.814999580383300781e+00 4.736500167846679688e+01 6.144599914550781250e+01
9.140999794006347656e+00 4.869300079345703125e+01 6.171599960327148438e+01
9.836000442504882812e+00 4.901100158691406250e+01 6.288000106811523438e+01
-2.078000068664550781e+00 6.727200317382812500e+01 6.038199996948242188e+01
-3.592999935150146484e+00 6.700299835205078125e+01 5.848600006103515625e+01
-2.562000036239624023e+00 6.659700012207031250e+01 5.743600082397460938e+01
-4.730000019073486328e+00 6.778299713134765625e+01 5.784000015258789062e+01
-6.579999923706054688e-01 6.717800140380859375e+01 5.606999969482421875e+01
5.429999828338623047e-01 6.648799896240234375e+01 5.672100067138671875e+01
-2.319999933242797852e-01 6.840399932861328125e+01 5.525600051879882812e+01
8.450000286102294922e-01 6.923799896240234375e+01 5.593999862670898438e+01
1.736999988555908203e+00 6.594499969482421875e+01 5.876800155639648438e+01
2.726999998092651367e+00 6.681999969482421875e+01 5.951300048828125000e+01
3.773000001907348633e+00 6.900900268554687500e+01 5.975699996948242188e+01
1.487999999999999989e+00 5.861699999999999733e+01 5.434899999999999665e+01
2.419999999999999929e+00 5.745499999999999829e+01 5.457399999999999807e+01
3.850000000000000089e+00 5.793399999999999750e+01 5.445199999999999818e+01
2.181000000000000050e+00 5.685399999999999920e+01 5.595400000000000063e+01
3.180000000000000160e+00 5.574900000000000233e+01 5.625600000000000023e+01
4.616999999999999993e+00 5.621900000000000119e+01 5.606300000000000239e+01
5.753000000000000114e+00 5.709400000000000119e+01 5.249499999999999744e+01
5.706999999999999851e+00 5.643999999999999773e+01 5.387299999999999756e+01
